-25.783884 -19.801310 5.991108
-26.110718 -19.676479 5.996019
-26.446478 -19.538437 6.000340
-26.786316 -19.381613 5.997284
-27.112837 -19.160954 5.963979
-27.442120 -18.941511 5.930087
-27.748024 -18.744015 5.898283
-28.026306 -18.552465 5.862578
-28.280056 -18.364374 5.824097
-28.522413 -18.181629 5.786744
-28.750006 -18.004181 5.751616
-28.988071 -17.843979 5.728653
-29.231812 -17.677767 5.711536
-29.486452 -17.494860 5.700511
-29.750118 -17.296078 5.698769
-30.040642 -17.083363 5.716653
-30.347425 -16.841795 5.750849
-30.649372 -16.587688 5.794582
-30.983345 -16.383148 5.881608
-31.269695 -16.157106 5.955639
-31.593529 -15.972024 6.084310
-31.873175 -15.760987 6.203833
-32.020859 -15.446104 6.214958
-32.139538 -15.117825 6.208329
-32.233620 -14.782414 6.189518
-32.300030 -14.450274 6.162292
-32.346012 -14.105123 6.129943
-32.363968 -13.753392 6.088888
-32.357365 -13.394111 6.045745
-32.329403 -13.024357 6.006818
-32.260239 -12.635885 5.951704
-32.158352 -12.271504 5.885334
-32.043789 -11.944380 5.827343
-31.925703 -11.645544 5.786286
-31.797979 -11.362497 5.754618
-31.678705 -11.091627 5.748323
-31.544449 -10.829862 5.743408
-31.412458 -10.561313 5.759099
-31.275803 -10.283342 5.787669
-31.120872 -10.009835 5.810279
-30.939810 -9.744445 5.818889
-30.762140 -9.462865 5.844512
-30.570644 -9.178923 5.866751
-30.362663 -8.893095 5.882688
-30.134487 -8.605588 5.888673
-29.895096 -8.305355 5.894197
-29.628740 -8.038197 5.911373
-29.342335 -7.848120 5.998111
-29.049940 -7.699012 6.142661
-28.756824 -7.579760 6.265713
-28.492434 -7.433282 6.345359
-28.266781 -7.215139 6.345159
-28.155329 -6.864409 6.335185
-28.167177 -6.522435 6.341205
-28.252142 -6.220588 6.329894
-28.375633 -5.939525 6.277659
-28.530882 -5.666522 6.211020
-28.692631 -5.387315 6.130447
-28.832165 -5.087923 6.032719
-28.933477 -4.758359 5.933184
-29.005625 -4.386825 5.858059
-29.037409 -4.028343 5.752230
-29.062387 -3.695937 5.637895
-29.086395 -3.383209 5.524790
-29.104334 -3.084749 5.412324
-29.111364 -2.796688 5.300876
-29.109291 -2.512280 5.196120
-29.109173 -2.221518 5.111490
-29.104898 -1.918220 5.045837
-29.074223 -1.603881 4.985927
-29.016087 -1.272526 4.935547
-28.944567 -0.913167 4.910705
-28.843668 -0.537585 4.897341
-28.731691 -0.187810 4.892538
-28.612692 0.135826 4.897456
-28.484396 0.436407 4.910482
-28.347620 0.719701 4.933293
-28.201344 0.989403 4.965055
-28.037849 1.245611 5.000914
-27.866957 1.497420 5.047726
-27.683222 1.747480 5.102954
-27.479197 1.994722 5.161773
-27.254847 2.243182 5.224795
-27.011070 2.498198 5.293140
-26.735851 2.756466 5.360262
-26.441605 2.984896 5.435768
-26.171030 3.159403 5.545234
-25.921711 3.311446 5.690032
-25.672125 3.438692 5.847880
-25.432505 3.565194 6.016580
-25.173979 3.685438 6.153335
-24.926315 3.847029 6.279288
-24.692295 4.071614 6.387353
-24.486822 4.376458 6.470321
-24.435762 4.693787 6.504959
-24.471390 4.995938 6.454788
-24.534975 5.308343 6.337195
-24.596382 5.640165 6.201868
-24.609095 6.002016 6.072538
-24.591448 6.338503 5.921199
-24.616829 6.641852 5.763184
-24.620514 6.918426 5.594390
-24.587015 7.182654 5.431189
-24.523079 7.455584 5.295105
-24.427019 7.756298 5.204497
-24.288271 8.100469 5.174410
-24.113413 8.405285 5.210653
-23.956453 8.660642 5.307507
-23.789972 8.878970 5.447549
-23.607327 9.079562 5.616340
-23.400450 9.279530 5.797943
-23.160549 9.495058 5.975680
-22.904140 9.726541 6.147617
-22.661530 9.920175 6.332249
-22.421583 10.076616 6.518990
-22.188246 10.215394 6.700682
-21.969114 10.361677 6.872600
-21.763720 10.525080 7.023356
-21.538450 10.695079 7.137345
-21.282797 10.886276 7.209767
-21.008709 11.149555 7.244058
-20.866966 11.468391 7.239913
-20.863045 11.785771 7.204275
-20.884830 12.086893 7.119037
-20.902611 12.384089 6.980280
-20.904335 12.686718 6.806225
-20.866673 12.998740 6.614963
-20.798290 13.329973 6.426768
-20.746223 13.625028 6.216800
-20.716257 13.882504 5.989233
-20.664164 14.105750 5.752360
-20.586163 14.315510 5.525135
-20.476004 14.530716 5.327022
-20.327312 14.771739 5.171477
-20.133121 15.056107 5.072610
-19.913860 15.358686 5.040125
-19.709072 15.622218 5.066251
-19.504364 15.848545 5.141506
-19.307026 16.061636 5.257204
-19.094732 16.253725 5.403559
-18.862040 16.433205 5.571434
-18.601051 16.607349 5.751516
-18.316399 16.792639 5.935624
-18.042244 16.899536 6.146187
-17.803051 16.958548 6.386324
-17.583796 17.004559 6.635312
-17.360699 17.062109 6.857080
-17.127136 17.181011 7.029613
-16.879427 17.411123 7.131721
-16.662971 17.687124 7.127589
-16.514902 17.943892 7.028433
-16.405928 18.194593 6.865267
-16.330784 18.460678 6.678623
-16.249094 18.741131 6.488429
-16.146805 19.057608 6.316737
-16.007332 19.373526 6.153445
-15.855630 19.632515 5.986338
-15.703328 19.860882 5.823482
-15.540045 20.072559 5.671058
-15.351060 20.275213 5.535327
-15.134173 20.484604 5.422802
-14.887224 20.717909 5.340079
-14.601926 20.970592 5.294307
-14.344842 21.201279 5.295279
-14.099046 21.391884 5.341506
-13.865114 21.571087 5.431267
-13.626106 21.748264 5.562182
-13.365533 21.921322 5.731446
-13.085016 22.090292 5.934894
-12.843661 22.219330 6.159046
-12.635758 22.307810 6.397429
-12.449500 22.379452 6.643596
-12.258638 22.422361 6.884245
-12.050699 22.459375 7.112903
-11.815715 22.519567 7.326201
-11.537475 22.614914 7.517276
-11.245834 22.783804 7.645200
-11.005031 22.964903 7.572960
-10.773112 23.147678 7.384789
-10.528877 23.370800 7.192944
-10.280422 23.572329 7.010621
-10.058624 23.724363 6.816329
-9.827538 23.822689 6.624274
-9.582931 23.906679 6.450187
-9.307851 23.994303 6.309036
-8.986128 24.102795 6.215766
-8.631812 24.227158 6.191796
-8.347790 24.355913 6.258109
-8.100553 24.484011 6.396035
-7.858378 24.615690 6.584804
-7.591556 24.740274 6.803142
-7.319359 24.859484 7.043052
-7.112972 24.945911 7.311392
-6.940989 25.014359 7.586110
-6.766692 25.077192 7.843834
-6.553440 25.146757 8.061159
-6.259550 25.212101 8.213844
-5.917549 25.271349 8.240164
-5.666265 25.307907 8.071301
-5.450609 25.327911 7.794076
-5.204400 25.327574 7.502257
-4.907436 25.321371 7.256586
-4.657437 25.321564 7.006719
-4.434039 25.286602 6.759805
-4.213447 25.235065 6.531828
-3.971531 25.179260 6.338551
-3.685986 25.131907 6.195761
-3.337735 25.119556 6.119700
-2.984851 25.147131 6.143167
-2.715276 25.219465 6.278900
-2.493695 25.312140 6.493244
-2.283471 25.390919 6.751872
-2.047999 25.465813 7.022004
-1.766337 25.547886 7.279187
-1.539103 25.627129 7.574865
-1.336001 25.656153 7.853458
-1.087340 25.647772 8.027591
-0.736770 25.622934 8.018131
-0.455773 25.572933 7.867387
-0.256650 25.501984 7.633791
-0.087821 25.406872 7.358646
0.117638 25.326410 7.085087
0.411178 25.270830 6.849724
0.711465 25.276836 6.625135
0.978045 25.253338 6.410260
1.243193 25.232422 6.231937
1.531894 25.227455 6.114357
1.863709 25.238131 6.081782
2.230037 25.278923 6.151454
2.524862 25.325830 6.292814
2.757766 25.390955 6.487654
2.956543 25.465412 6.721077
3.148811 25.539423 6.978195
3.362534 25.591003 7.243647
3.625526 25.638031 7.503515
3.902289 25.657164 7.784306
4.141495 25.660059 8.075615
4.396277 25.623077 8.258663
4.717239 25.546770 8.217263
4.964191 25.462473 8.009956
5.109897 25.429087 7.733877
5.211046 25.396736 7.419502
5.328916 25.340113 7.100133
5.533380 25.263760 6.809562
5.795535 25.164770 6.555381
6.029436 25.051388 6.320712
6.254014 24.943630 6.110869
6.480107 24.822773 5.929994
6.723171 24.692245 5.782897
6.999354 24.562279 5.674700
7.320470 24.420023 5.609685
7.660224 24.296289 5.622754
7.942122 24.253094 5.770215
8.173740 24.224453 6.004327
8.381415 24.152988 6.272900
8.613684 24.009985 6.524727
8.864887 23.842678 6.752169
9.075680 23.698896 6.983407
9.274191 23.540049 7.176453
9.518195 23.378866 7.290695
9.852598 23.235901 7.290851
10.148714 23.172523 7.176493
10.388350 23.157162 6.976875
10.612739 23.142063 6.726126
10.870714 23.111330 6.465632
11.142175 23.061796 6.210191
11.352309 23.013134 5.950715
11.549139 22.956219 5.711462
11.780447 22.878988 5.517554
12.105670 22.785280 5.393773
12.440231 22.660810 5.326397
12.744393 22.538689 5.297611
13.025528 22.409254 5.299920
13.298901 22.276342 5.326294
13.569909 22.125710 5.369071
13.847500 21.950190 5.420839
14.146489 21.750801 5.474465
14.448098 21.530596 5.527245
14.689859 21.322054 5.591445
14.902601 21.122898 5.671122
15.094293 20.897331 5.768854
15.312537 20.649790 5.892133
15.513432 20.365755 6.050368
15.651902 20.102243 6.252147
15.762567 19.855385 6.461836
15.879448 19.615522 6.639503
16.021841 19.357147 6.732313
16.245392 19.088552 6.712189
16.528961 18.868431 6.623831
16.778116 18.691473 6.491011
17.019648 18.562878 6.336046
17.260218 18.471182 6.164735
17.494740 18.391504 5.975407
17.727468 18.306614 5.773211
17.963253 18.198612 5.564600
18.208942 18.053280 5.358273
18.463432 17.848211 5.163439
18.693150 17.626368 4.975225
18.864891 17.400347 4.804855
19.025223 17.168535 4.680849
19.214432 16.906662 4.630972
19.427462 16.596403 4.674222
19.590912 16.309544 4.771587
19.729885 16.059313 4.905504
19.832037 15.816926 5.064906
19.929321 15.574325 5.239717
20.009768 15.302916 5.418404
20.078732 14.982067 5.589972
20.134369 14.646403 5.765102
20.142935 14.336405 5.952575
20.127913 14.044014 6.140761
20.093702 13.761769 6.307536
20.049437 13.482388 6.434868
20.007818 13.189783 6.514547
20.052246 12.869979 6.556925
20.149412 12.502572 6.521708
20.290714 12.183532 6.419099
20.504316 11.965999 6.316021
20.727789 11.793335 6.180162
20.988607 11.666930 6.049011
21.256105 11.548682 5.898886
21.532610 11.424923 5.737945
21.796942 11.260376 5.557794
22.071939 11.054747 5.383191
22.334454 10.866511 5.195354
22.553429 10.698627 4.985727
22.739634 10.529797 4.775970
22.905006 10.340986 4.588001
23.071102 10.117654 4.444753
23.226297 9.823606 4.358335
23.361967 9.472787 4.342964
23.468706 9.161332 4.393775
23.549503 8.876327 4.496233
23.583509 8.597303 4.631779
23.595385 8.313594 4.788666
23.586657 8.010620 4.950191
23.564869 7.673601 5.100533
23.528276 7.313903 5.238972
23.454384 6.989452 5.400651
23.349525 6.691345 5.571148
23.238176 6.409686 5.723132
23.154129 6.126252 5.832842
23.143463 5.827378 5.898413
23.267124 5.509387 5.935735
23.557673 5.271501 5.992702
23.801435 5.074566 5.951223
24.057011 4.923396 5.870393
24.334318 4.812021 5.767427
24.626394 4.723301 5.654523
24.915766 4.618191 5.520581
25.207466 4.492431 5.395012
25.500280 4.326846 5.289360
25.789616 4.095858 5.207191
26.066820 3.843208 5.138986
26.313955 3.596481 5.063695
26.537977 3.355878 4.987577
26.758923 3.128671 4.925978
26.943329 2.887895 4.852227
27.124809 2.649544 4.792063
27.293810 2.402406 4.737918
27.444752 2.138134 4.685942
27.595558 1.861039 4.647664
27.746881 1.565385 4.622685
27.889120 1.241789 4.605175
28.034525 0.890286 4.602087
28.187983 0.538419 4.620126
28.310732 0.202078 4.641667
28.449463 -0.106741 4.689415
28.553261 -0.411348 4.734987
28.649202 -0.706992 4.790582
28.721554 -1.002173 4.847311
28.771889 -1.297783 4.905318
28.818830 -1.596525 4.971675
28.836113 -1.905140 5.033131
28.839262 -2.223854 5.095294
28.819881 -2.556563 5.152690
28.783834 -2.907980 5.205980
28.731590 -3.281245 5.252551
28.667835 -3.662246 5.301330
28.584414 -3.997393 5.384372
28.471733 -4.300207 5.485160
28.346689 -4.587263 5.597810
28.222597 -4.867911 5.705497
28.122211 -5.153726 5.795763
28.076122 -5.457960 5.864901
28.093607 -5.794652 5.888273
28.189829 -6.154587 5.852472
28.353327 -6.425015 5.771338
28.565554 -6.620216 5.653855
28.820702 -6.766428 5.525196
29.097790 -6.898099 5.387547
29.384268 -7.044991 5.254649
29.658293 -7.244617 5.127751
29.937174 -7.502633 5.040756
30.219751 -7.753945 4.949278
30.493793 -7.990791 4.838249
30.761955 -8.215253 4.718122
31.013737 -8.436785 4.587286
31.252008 -8.657021 4.455997
31.472361 -8.881366 4.327977
31.672533 -9.113381 4.209511
31.853859 -9.355976 4.109570
32.023552 -9.607684 4.041046
32.164402 -9.880597 3.998343
32.286228 -10.173018 3.995861
32.386520 -10.490692 4.038063
32.446495 -10.844325 4.119864
32.471241 -11.216794 4.231949
32.453075 -11.576509 4.337668
32.446331 -11.910089 4.463324
32.394291 -12.230170 4.582683
32.350487 -12.528067 4.719289
32.298950 -12.810480 4.865877
32.208935 -13.076996 5.009779
32.100113 -13.326715 5.159829
31.989912 -13.561560 5.320982
31.887945 -13.789521 5.497122
31.786282 -14.007762 5.680158
31.750887 -14.239162 5.888239
31.662300 -14.459974 6.092631
31.577099 -14.686866 6.308222
31.542515 -14.938020 6.540706
31.490156 -15.193561 6.777851
31.377983 -15.432315 7.012580
31.247601 -15.670411 7.253298
31.100395 -15.908377 7.500765
30.925941 -16.140356 7.754201
30.720602 -16.352913 8.011876
30.539717 -16.536173 8.272039
30.374094 -16.688057 8.531576
30.211224 -16.809271 8.789562
30.062046 -16.920387 9.051368
29.933899 -17.043980 9.326475
29.801243 -17.161974 9.606469
29.632326 -17.244831 9.877575
29.433653 -17.299759 10.135188
29.208910 -17.334860 10.377873
28.948769 -17.341743 10.592797
28.667707 -17.355644 10.798751
28.365698 -17.383921 10.995214
28.007820 -17.392735 11.147056
27.597483 -17.387278 11.234398
27.263548 -17.464314 11.348874
26.909269 -17.460083 11.321157
26.600506 -17.404842 11.181457
26.362747 -17.379362 11.055902
26.130104 -17.425169 11.001725
25.752317 -17.646328 11.057968
25.299936 -17.937809 11.032786
24.920403 -18.161325 10.863362
24.613640 -18.337763 10.636955
24.396181 -18.424074 10.351565
24.195702 -18.511559 10.057339
24.009809 -18.590485 9.757649
23.810535 -18.692404 9.468244
23.664551 -18.722008 9.156448
23.601004 -18.648575 8.797011
23.572447 -18.547888 8.437123
23.514944 -18.482971 8.104008
23.451315 -18.417168 7.784613
23.382551 -18.339481 7.470005
23.302431 -18.250032 7.162317
23.203539 -18.144617 6.860184
23.071117 -18.021391 6.566163
22.913750 -17.868023 6.276049
22.737942 -17.672272 5.986557
22.553955 -17.454641 5.749808
22.382969 -17.217882 5.576002
22.224112 -16.964428 5.458063
22.063980 -16.705851 5.391430
21.896578 -16.443005 5.364775
21.703594 -16.188560 5.377383
21.454535 -15.953577 5.436160
21.006763 -15.805545 5.604292
20.907015 -15.452191 5.625569
20.816917 -15.082276 5.633885
20.739824 -14.699799 5.617876
20.656609 -14.314237 5.579879
20.588892 -13.940837 5.528717
20.544924 -13.597664 5.486841
20.506323 -13.279354 5.462420
20.468561 -12.975969 5.454726
20.435867 -12.677074 5.457829
20.406956 -12.379077 5.469365
20.376612 -12.074992 5.489722
20.352873 -11.760298 5.511102
20.332853 -11.430861 5.532225
20.304609 -11.081841 5.557395
20.286531 -10.706395 5.572273
20.262383 -10.329861 5.613358
20.272089 -9.993840 5.690746
20.290232 -9.685254 5.786564
20.323736 -9.383509 5.848939
20.317316 -9.073553 5.881824
20.244503 -8.740491 5.865600
20.104952 -8.406902 5.772416
19.905201 -8.179703 5.644294
19.667616 -8.021560 5.498288
19.418283 -7.882469 5.342262
19.176264 -7.714752 5.197274
18.927916 -7.488052 5.098972
18.670141 -7.194861 5.050015
18.438993 -6.908134 4.999256
18.239071 -6.625996 4.942780
18.064690 -6.348081 4.883865
17.909502 -6.073512 4.825309
17.767792 -5.801976 4.769297
17.654732 -5.523783 4.706334
17.519590 -5.258136 4.664424
17.396338 -4.985914 4.623534
17.277189 -4.707377 4.587336
17.150290 -4.423510 4.562386
17.025597 -4.127026 4.542210
16.905390 -3.813309 4.524432
16.799599 -3.475832 4.502011
16.699106 -3.114680 4.480253
16.593777 -2.740654 4.468956
16.512602 -2.389802 4.467312
16.458902 -2.060701 4.474891
16.406591 -1.752056 4.504040
16.368824 -1.452435 4.545279
16.332964 -1.157699 4.602965
16.307400 -0.859039 4.672190
16.284351 -0.551158 4.755353
16.266914 -0.227651 4.851007
16.262033 0.118351 4.956894
16.277229 0.487831 5.071362
16.299603 0.819700 5.209869
16.361765 1.113526 5.354368
16.429459 1.381748 5.510841
16.502119 1.638996 5.670021
16.568830 1.898133 5.826330
16.623314 2.174298 5.971268
16.626284 2.463147 6.130486
16.560450 2.769673 6.313752
16.413643 3.070269 6.464122
16.212269 3.295467 6.467243
15.959569 3.495459 6.401521
15.720402 3.748483 6.305109
15.488762 4.052015 6.257873
15.252591 4.326793 6.215529
15.057231 4.592075 6.148828
14.882546 4.847856 6.078638
14.729170 5.108047 6.014697
14.597939 5.384154 5.967096
14.485948 5.687046 5.947308
14.387121 6.027430 5.968619
14.295291 6.389733 6.042656
14.228975 6.706137 6.155375
14.201546 6.990945 6.289901
14.220925 7.262321 6.430231
14.265152 7.530383 6.578626
14.302496 7.800925 6.747839
14.337614 8.091897 6.924618
14.368859 8.419865 7.098307
14.405499 8.751141 7.275720
14.489193 9.041479 7.436023
14.573295 9.306535 7.594065
14.624167 9.570996 7.742730
14.606883 9.861337 7.876482
14.477123 10.174189 8.019117
14.257421 10.384147 8.152470
14.017781 10.563678 8.193625
13.752722 10.746774 8.185122
13.473732 10.949833 8.172217
13.194037 11.203422 8.183029
12.923470 11.446516 8.199954
12.675692 11.657430 8.197805
12.457780 11.873223 8.186502
12.254804 12.108919 8.206172
12.079441 12.406051 8.258905
11.969445 12.756194 8.343129
11.940535 13.079502 8.469872
11.950661 13.380079 8.629381
11.969706 13.669684 8.781890
11.952057 13.951451 8.914165
11.859934 14.247526 8.994750
11.639202 14.540245 9.030489
11.354708 14.687082 8.992144
11.041864 14.684236 8.942822
10.706820 14.620626 8.891801
10.353479 14.579092 8.842316
9.980703 14.628653 8.827508
9.616365 14.731259 8.828887
9.281742 14.826284 8.818981
8.973638 14.929481 8.802119
8.690621 15.059231 8.778540
8.427916 15.225616 8.764797
8.180951 15.441648 8.768938
7.944356 15.717894 8.802677
7.763515 16.024769 8.890379
7.700042 16.334517 9.003528
7.705863 16.644382 9.133932
7.731665 16.949831 9.268602
7.743560 17.257092 9.371617
7.676838 17.558001 9.472622
7.499457 17.877104 9.513410
7.217259 17.971363 9.502049
6.901170 17.855282 9.466323
6.552365 17.691763 9.432821
6.171520 17.629520 9.443466
5.817099 17.634624 9.488282
5.505568 17.682878 9.503170
5.211153 17.759756 9.535888
4.907934 17.883953 9.586668
4.586668 18.063715 9.659626
4.346181 18.268507 9.740710
4.170918 18.504606 9.842406
4.019324 18.792894 9.973342
3.938041 19.140770 10.142416
3.974569 19.500097 10.334352
3.995656 19.824242 10.480720
3.860532 20.039433 10.581253
3.524436 20.072060 10.618582
3.270313 19.926271 10.554314
3.078900 19.665787 10.443521
2.886130 19.373873 10.319345
2.633185 19.120615 10.234997
2.289336 18.960262 10.229746
1.960219 18.878576 10.252428
1.646656 18.868853 10.295387
1.331312 18.927881 10.361353
0.997140 19.044607 10.469007
0.716266 19.227133 10.567318
0.519825 19.435535 10.687141
0.355343 19.669550 10.810734
0.170920 19.926653 10.919413
-0.075653 20.196110 11.020257
-0.296648 20.475765 11.101778
-0.572146 20.605242 11.145475
-0.851240 20.453257 11.110898
-0.977824 20.157454 11.001540
-1.185348 19.876123 10.859303
-1.408981 19.605450 10.754706
-1.606262 19.361300 10.638103
-1.824026 19.159218 10.541873
-2.108035 19.024231 10.475437
-2.474177 18.975018 10.461969
-2.790985 19.033161 10.488186
-3.064715 19.169533 10.542963
-3.330167 19.349770 10.617812
-3.621941 19.542093 10.699664
-3.937340 19.730509 10.784449
-4.168297 19.943962 10.881622
-4.423700 20.109831 10.952766
-4.769645 20.112770 10.946383
-4.981551 19.858143 10.819847
-5.054601 19.517159 10.684234
-5.045787 19.212963 10.562862
-5.011291 18.929836 10.440720
-5.009391 18.651901 10.292040
-5.089060 18.346312 10.138452
-5.245394 18.041002 10.001943
-5.437825 17.799639 9.902018
-5.689536 17.615396 9.828348
-6.021512 17.473291 9.783256
-6.345037 17.470255 9.808634
-6.634788 17.606661 9.860301
-6.976429 17.716661 9.922311
-7.355710 17.831137 9.959797
-7.704764 17.957829 10.021812
-8.012859 17.984556 10.106126
-8.284816 17.826534 10.117146
-8.464217 17.525953 10.046872
-8.510841 17.223595 9.955976
-8.474543 16.911942 9.871373
-8.421804 16.601362 9.757525
-8.409076 16.285961 9.631010
-8.480936 15.955441 9.527834
-8.650604 15.620643 9.451071
-8.827461 15.321213 9.393848
-9.016527 15.059799 9.345925
-9.223633 14.828500 9.311466
-9.458778 14.624037 9.286062
-9.729615 14.439159 9.272179
-10.048960 14.276248 9.255751
-10.405426 14.149471 9.247044
-10.741071 14.112529 9.277653
-11.062646 14.142678 9.327933
-11.377045 14.202245 9.384268
-11.690681 14.258019 9.425159
-12.011190 14.276395 9.439313
-12.359179 14.228152 9.409351
-12.683234 14.069918 9.347555
-12.877506 13.805249 9.293493
-12.945755 13.466492 9.274064
-12.977101 13.099147 9.209930
-12.996874 12.732453 9.108717
-12.984995 12.414544 8.986183
-12.951948 12.125910 8.855004
-12.931135 11.851494 8.710620
-12.917735 11.572442 8.577806
-12.933806 11.268802 8.465409
-13.011539 10.923950 8.374096
-13.156783 10.598875 8.305921
-13.331682 10.332315 8.279907
-13.541306 10.104508 8.282097
-13.786935 9.893388 8.302338
-14.067783 9.674028 8.332889
-14.388673 9.469191 8.365262
-14.703939 9.322562 8.456948
-15.009841 9.206422 8.575073
-15.299163 9.108415 8.659328
-15.556339 8.985408 8.693299
-15.842413 8.795330 8.621607
-15.967547 8.471326 8.561646
-15.944401 8.159366 8.525299
-15.877850 7.873483 8.418065
-15.794461 7.587595 8.267850
-15.727592 7.275622 8.110883
-15.708939 6.920650 7.976294
-15.699306 6.563891 7.866031
-15.681037 6.240921 7.757782
-15.667791 5.940025 7.653290
-15.663830 5.647503 7.562071
-15.680523 5.351381 7.486728
-15.733010 5.040195 7.427524
-15.833392 4.702064 7.387433
-15.987682 4.354832 7.389340
-16.172890 4.058987 7.478724
-16.393717 3.807132 7.612761
-16.620718 3.575054 7.756492
-16.862318 3.375732 7.851426
-17.104757 3.181270 7.870357
-17.300686 2.932570 7.795709
-17.446056 2.638631 7.575625
-17.504478 2.376981 7.338607
-17.455873 2.108521 7.163743
-17.369944 1.859853 6.984268
-17.256989 1.625185 6.797771
-17.140413 1.409874 6.591264
-17.024027 1.199314 6.376032
-16.924210 0.986114 6.149853
-16.847620 0.754623 5.920486
-16.792431 0.486204 5.704522
-16.752056 0.163198 5.521574
-16.735966 -0.186731 5.364138
-16.750158 -0.509221 5.213939
-16.772223 -0.817802 5.089694
-16.793121 -1.119274 4.995688
-16.828691 -1.413347 4.916187
-16.868484 -1.707201 4.855175
-16.912924 -2.005044 4.808370
-16.946056 -2.315445 4.779286
-16.988317 -2.639477 4.752250
-17.032957 -2.983481 4.727302
-17.101561 -3.347280 4.692523
-17.192606 -3.722982 4.646887
-17.277319 -4.078538 4.602895
-17.356779 -4.413995 4.562336
-17.435434 -4.732355 4.525682
-17.516323 -5.036985 4.493915
-17.597099 -5.333017 4.470474
-17.686632 -5.621926 4.453727
-17.781218 -5.909432 4.448037
-17.898249 -6.193448 4.446183
-18.014305 -6.487349 4.464414
-18.147663 -6.788723 4.495034
-18.302036 -7.100472 4.538023
-18.481262 -7.425463 4.593120
-18.693117 -7.735884 4.660786
-18.905441 -7.985703 4.772099
-19.117590 -8.188193 4.919186
-19.337786 -8.355448 5.082474
-19.551533 -8.508852 5.264239
-19.761642 -8.663707 5.448821
-19.962397 -8.838673 5.629051
-20.204695 -9.032835 5.740736
-20.442690 -9.276061 5.823739
-20.582146 -9.610039 5.930577
-20.559929 -9.916862 5.915598
-20.501705 -10.184916 5.761007
-20.424274 -10.465670 5.548454
-20.363001 -10.788200 5.382099
-20.388546 -11.164003 5.290227
-20.399309 -11.529361 5.230892
-20.384829 -11.877378 5.194694
-20.355743 -12.209815 5.172758
-20.345539 -12.526979 5.137516
-20.349174 -12.834419 5.098096
-20.370478 -13.135650 5.055984
-20.399702 -13.435520 5.022095
-20.440027 -13.737162 4.996158
-20.491993 -14.044399 4.979521
-20.564138 -14.360123 4.968551
-20.657925 -14.687649 4.963934
-20.751951 -15.038582 4.979635
-20.860733 -15.412192 5.008304
-20.974012 -15.776024 5.040654
-21.090925 -16.121614 5.073565
-21.233923 -16.444349 5.093264
-21.365973 -16.757059 5.123788
-21.476215 -17.064451 5.175354
-21.593414 -17.359653 5.230695
-21.707455 -17.648497 5.300017
-21.827251 -17.931385 5.379913
-21.955675 -18.208303 5.470572
-22.093609 -18.487911 5.578557
-22.234743 -18.779697 5.716847
-22.418327 -19.065933 5.848061
-22.804207 -19.195799 5.745003
-23.143473 -19.368841 5.728376
-23.501736 -19.531855 5.713825
-23.885283 -19.637306 5.665528
-24.222746 -19.687929 5.644668
-24.521725 -19.754408 5.699875
-24.811541 -19.784092 5.757547
-25.113056 -19.810272 5.837454
-25.437162 -19.815273 5.916851
